ncols         74
nrows         83
xllcorner     892876.30040912
yllcorner     1171434.6457458
cellsize      10
NODATA_value  -9999
1172.273 1170.747 1170.611 1172.147 1173.021 1173.878 1174.768 1172.264 1169.922 1165.726 1164.641 1172.201 1174.53 1172.62 1167.535 1163.87 1161.389 1158.689 1157.141 1157.307 1157.592 1155.64 1156.454 1159.562 1162.127 1162.551 1159.455 1160.433 1163.073 1167.68 1166.247 1161.652 1160.499 1158.26 1154.052 1149.932 1152.366 1155.937 1158.187 1160.988 1161.269 1161.676 1160.083 1159.886 1162.564 1162.651 1161.869 1157.306 1158.599 1162.886 1163.526 1150.147 1150.283 1155.609 1159.661 1161.518 1162.272 1163.729 1163.288 1162.813 1161.257 1160.451 1163.662 1169.352 1177.6 1179.786 1179.376 1179.256 1176.176 1174.346 1173.942 1173.043 1172.844 1173.765 
1173.534 1175.163 1175.661 1177.431 1177.177 1176.048 1175.307 1173.071 1171.318 1167.662 1165.11 1165.688 1171.586 1169.311 1164 1161.474 1158.886 1156.944 1159.398 1160.77 1158.864 1157.067 1158.873 1161.516 1167.085 1164.152 1163.868 1165.976 1174.263 1173.535 1172.717 1169.15 1164.794 1163.682 1151.857 1153.893 1156.763 1160.175 1164.244 1164.775 1163.18 1164.714 1163.409 1164.69 1164.65 1163.797 1162.364 1159.166 1158.478 1161.665 1164.543 1151.213 1150.793 1155.395 1159.536 1162.059 1163.085 1164.425 1165.45 1164.688 1163.127 1161.598 1162.738 1166.115 1174.582 1180.601 1180.949 1180.017 1178.31 1175.618 1175.347 1172.562 1172.53 1173.515 
1176.959 1177.389 1177.006 1176.852 1176.72 1175.237 1174.416 1172.882 1172.232 1171.094 1165.977 1161.492 1164.132 1163.6 1161.495 1159.229 1157.561 1159.579 1160.848 1159.803 1156.72 1158.102 1160.45 1166.929 1172.273 1172.162 1172.153 1176.654 1177.243 1176.502 1173.87 1168.531 1163.75 1154.687 1155.702 1159.737 1163.913 1164.529 1166.798 1167.995 1166.579 1167.781 1169.121 1170.017 1169.254 1169.086 1164.249 1161.797 1160.681 1161.793 1164.411 1156.117 1151.097 1155.318 1158.869 1162.293 1163.79 1164.933 1166.327 1166.275 1165.536 1164.854 1162.339 1163.818 1170.646 1179.338 1180.817 1180.704 1180.19 1176.422 1175.328 1174.363 1173.972 1174.104 
1178.789 1178.445 1177.433 1175.948 1174.978 1174.652 1173.434 1172.572 1172.071 1171.944 1170.583 1165.026 1161.809 1160.38 1160.054 1159.135 1159.568 1161.998 1162.497 1162.086 1157.754 1160.047 1163.282 1173.256 1176.853 1179.176 1178.003 1180.08 1180.412 1174.725 1168.123 1163.77 1156.508 1154.566 1159.994 1163.684 1168.277 1170.861 1171.867 1172.33 1169.288 1171.458 1174.287 1177.081 1176.62 1176.117 1173.103 1166.359 1163.224 1160.194 1165.329 1163.604 1152.136 1152.006 1158.771 1162.593 1164.328 1165.516 1166.683 1166.929 1166.261 1165.549 1162.872 1163.175 1166.275 1175.372 1180.667 1181.156 1180.704 1177.569 1176.641 1176.2 1175.767 1175.93 
1181.011 1178.208 1177.406 1176.56 1175.57 1174.147 1173.061 1172.174 1171.484 1171.243 1171.285 1169.259 1166.148 1164.085 1162.666 1162.933 1163.714 1164.704 1165.597 1163.633 1158.698 1161.757 1165.757 1175.703 1180.653 1182.134 1183.527 1184.631 1178.996 1169.802 1163.759 1157.508 1154.476 1156.51 1161.937 1167.498 1171.168 1176.544 1176.872 1175.695 1173.305 1174.618 1179.533 1180.063 1180.657 1178.386 1176.083 1168.979 1164.238 1160.738 1164.26 1164.591 1153.602 1152.687 1158.79 1163.564 1165.227 1166.289 1167.033 1167.124 1166.692 1165.822 1164.397 1163.996 1167.122 1175.952 1179.322 1181.668 1181.681 1179.513 1178.628 1177.523 1177.189 1177.484 
1182.33 1179.617 1178.09 1176.951 1176.409 1175.514 1173.526 1171.681 1171.146 1170.779 1169.035 1167.624 1166.076 1165.674 1164.053 1164.393 1165.541 1166.699 1165.464 1162.781 1160.511 1166.471 1172.775 1179.5 1182.977 1185.199 1188.728 1186.043 1174.074 1164.996 1160.432 1154.711 1155.578 1159.379 1164.885 1170.877 1176.368 1181.661 1178.741 1177.865 1176.281 1176.827 1180.066 1182.103 1181.297 1179.4 1177.361 1171.841 1165.021 1161.094 1164.014 1164.986 1154.914 1153.934 1159.015 1165.388 1167.028 1167.217 1167.713 1167.504 1167.127 1166.689 1165.951 1165.742 1170.222 1173.599 1177.849 1181.182 1182.435 1181.167 1180.119 1178.832 1178.394 1178.685 
1186.385 1181.696 1178.819 1177.384 1177.299 1176.501 1174.075 1171.717 1169.89 1168.3 1167.424 1168.105 1167.211 1165.572 1165.593 1165.648 1166.724 1165.617 1164.389 1160.156 1165.512 1169.595 1179.464 1182.87 1185.123 1188.212 1191.683 1185.744 1170.773 1163.151 1158.37 1155.327 1158.478 1161.937 1168.479 1173.711 1179.216 1184.673 1181.002 1179.536 1178.222 1178.559 1180.269 1181.992 1182.424 1181.814 1179.77 1175.715 1167.51 1163.276 1164.373 1161.679 1154.933 1155.272 1157.666 1166.075 1168.234 1168.415 1168.677 1168.379 1168.08 1167.654 1167.05 1165.663 1169.026 1171.583 1177 1181.117 1182.525 1182.134 1180.883 1180.318 1179.917 1179.615 
1189.651 1184.318 1180.013 1177.622 1175.932 1174.116 1172.933 1171.531 1169.929 1170.309 1170.446 1170.496 1169.333 1167.649 1167.159 1166.646 1165.867 1163.363 1160.806 1167.095 1172.942 1177.666 1183.753 1186.458 1189.859 1191.698 1191.975 1184.599 1169.327 1163.33 1158.575 1158.294 1160.683 1168.253 1173 1176.435 1181.694 1185.835 1182.729 1180.932 1179.895 1181.187 1182.261 1182.049 1182.264 1181.074 1181.074 1176.712 1168.642 1165 1165.138 1158.955 1156.507 1156.826 1158.404 1165.907 1168.805 1169.54 1169.754 1169.662 1169.727 1168.864 1167.54 1166.332 1168.397 1172.02 1177.66 1181.99 1184.006 1183.685 1181.627 1180.54 1180.878 1181.373 
1191.127 1185.108 1180.687 1176.694 1174.806 1173.622 1172.972 1173.009 1171.158 1171.733 1172.426 1172.279 1171.309 1169.884 1167.761 1164.801 1162.382 1164.835 1171.894 1176.161 1178.226 1185.034 1188.172 1191.343 1190.883 1188.823 1187.351 1181.786 1170.464 1164.276 1159.22 1159.861 1164.303 1176.082 1179.114 1180.873 1184.384 1185.974 1182.503 1182.603 1181.472 1183.8 1185.43 1184.062 1182.366 1180.973 1180.332 1176.826 1170.74 1166.708 1166.844 1162.036 1157.653 1157.213 1161.316 1165.5 1170.073 1170.147 1170.803 1171.24 1172.542 1171.802 1168.937 1168.245 1170.118 1173.06 1179.128 1183.586 1185.316 1184.91 1184.329 1182.007 1182.643 1183.896 
1191.546 1186.552 1182.141 1177.878 1174.769 1173.688 1173.338 1173.642 1173.529 1174.343 1173.972 1173.309 1172.165 1170.378 1166.255 1164.348 1169.734 1175.416 1178.362 1180.863 1185.089 1192.414 1191.62 1188.919 1181.627 1178.335 1178.872 1177.029 1171.091 1166.032 1159.964 1160.025 1164.171 1170.437 1181.84 1185.952 1186.016 1185.997 1184.369 1182.797 1183.026 1185.38 1185.839 1185.484 1183.247 1180.182 1177.943 1173.646 1169.086 1166.754 1168.831 1165.939 1160.527 1158.274 1161.18 1166.205 1171.168 1171.745 1171.818 1173.026 1174.286 1173.721 1170.961 1170.067 1170.891 1172.752 1181.172 1184.522 1186.644 1187.387 1186.841 1187.492 1187.551 1186.863 
1195.728 1191.458 1185.824 1182.159 1178.498 1174.167 1174.316 1174.511 1175.521 1176.578 1175.198 1173.759 1172.666 1170.808 1168.791 1164.563 1176.408 1179.852 1182.944 1188.32 1193.844 1192.2 1188.466 1179.384 1175.706 1173.048 1172.158 1174.014 1173.455 1163.955 1161.685 1159.939 1161.916 1165.741 1173.423 1181.707 1186.144 1185.693 1184.496 1184.127 1184.29 1185.928 1185.675 1185.428 1183.132 1181.249 1175.674 1171.784 1168.116 1169.838 1170.58 1169.226 1165.858 1159.538 1158.853 1164.493 1171.785 1173.457 1173.403 1174.081 1175.369 1174.549 1173.276 1172.194 1171.273 1173.702 1181.919 1185.377 1187.886 1188.36 1189.359 1191.037 1191.672 1192.832 
1199.724 1195.284 1190.403 1186.314 1182.394 1177.086 1175.906 1176.467 1179.346 1178.248 1176.176 1174.302 1172.718 1170.708 1169.645 1165.443 1178.107 1183.576 1189.67 1195.488 1194.64 1191.294 1182.008 1175.604 1172.369 1169.325 1167.073 1166.751 1166.214 1166.679 1166.78 1166.365 1161.5 1164.104 1168.413 1174.541 1183.924 1186.657 1184.312 1184.221 1185.452 1186.424 1186.464 1186.292 1184.305 1182.183 1176.265 1172.545 1169.833 1174.489 1172.089 1170.819 1169.575 1162.248 1159.468 1163.304 1169.899 1175.344 1175.955 1175.336 1176.333 1174.987 1174.081 1172.495 1172.609 1178.059 1184.699 1190.351 1189.053 1190.45 1191.78 1193.39 1194.414 1196.142 
1203.102 1200.374 1197.697 1192.895 1188.943 1188.219 1185.187 1183.245 1181.706 1179.042 1176.448 1174.138 1172.088 1170.447 1168.508 1167.207 1178.86 1186.608 1194.485 1196.4 1194.524 1189.811 1180.578 1173.829 1171.631 1171.892 1171.6 1172.948 1172.04 1171.715 1170.88 1169.312 1166.274 1162.877 1166.661 1172.71 1181.576 1186.733 1184.788 1186.039 1186.41 1186.73 1186.621 1186.042 1184.584 1179.434 1176.877 1173.96 1170.951 1174.276 1173.803 1172.576 1171.805 1168.745 1159.949 1161.185 1168.471 1176.189 1177.377 1176.88 1177.439 1176.175 1174.056 1172.96 1175.284 1184.356 1188.976 1193.251 1190.733 1191.7 1194.151 1196.511 1198.88 1199.265 
1205.896 1203.309 1202.887 1199.209 1195.412 1191.009 1187.685 1184.708 1181.655 1178.819 1175.813 1173.639 1171.58 1169.344 1167.125 1172.061 1179.772 1189.279 1195.862 1195.998 1193.125 1186.522 1180.537 1173.682 1175.251 1174.765 1176.866 1178.166 1177.146 1177.686 1177.131 1173.862 1168.693 1166.522 1165.545 1172.334 1178.723 1185.925 1186.989 1185.721 1185.364 1185.261 1183.715 1181.37 1180.869 1178.165 1175.013 1172.382 1172.24 1174.452 1175.066 1173.748 1172.355 1170.548 1161.97 1160.368 1167.413 1174.234 1178.86 1177.838 1178.29 1177.131 1174.739 1177.136 1179.399 1187.061 1192.953 1193.273 1191.858 1193.105 1195.892 1200.029 1203.927 1206.473 
1208.053 1205.447 1202.935 1199.044 1195.441 1191.751 1187.986 1184.681 1182.571 1181.483 1179.29 1175.105 1171.801 1168.515 1169.588 1174.929 1180.378 1191.597 1197.348 1199.724 1194.24 1187.8 1176.582 1175.786 1179.905 1182.068 1182.942 1184.141 1183.999 1183.62 1181.915 1178.347 1175.776 1172.788 1166.164 1170.474 1175.521 1185.41 1186.889 1184.911 1182.338 1180.651 1179.518 1177.05 1174.856 1174.126 1173.344 1172.838 1174.658 1174.124 1175.298 1175.375 1173.865 1172.195 1167.032 1161.103 1162.46 1171.302 1176.626 1177.929 1178.048 1178.943 1177.604 1180.248 1184.397 1188.929 1192.045 1194.045 1193.589 1195.215 1196.725 1202.586 1207.258 1212.256 
1210.438 1207.226 1203.403 1199.554 1195.001 1190.694 1187.035 1183.816 1181.041 1178.823 1176.979 1173.876 1171.827 1171.669 1173.491 1177.353 1181.858 1193.307 1199.278 1201.289 1194.176 1188.461 1176.789 1181.077 1184.803 1187.302 1190.362 1190.678 1190.843 1188.928 1185.699 1180.647 1177.536 1177.9 1170.508 1170.202 1173.54 1184.703 1186.866 1182.42 1180.348 1179.098 1177.302 1178.581 1177.741 1177.31 1177.9 1177.08 1176.597 1176.932 1176.497 1176.063 1175.089 1173.198 1170.057 1163.502 1162.28 1167.733 1173.587 1177.887 1177.683 1178.998 1179.615 1181.483 1183.506 1186.825 1188.203 1191.652 1193.804 1196.275 1198.266 1204.072 1211.824 1218.527 
1213.709 1207.934 1203.935 1200.393 1194.7 1187.949 1184.402 1182.855 1180.984 1179.25 1177.87 1175.613 1174.242 1174.355 1177.23 1181.304 1186.787 1194.8 1201.299 1202.358 1196.887 1190.264 1179.326 1184.605 1188.629 1192.68 1195.796 1198.028 1197.372 1193.611 1187.697 1182.428 1180.607 1181.355 1170.469 1171.357 1175.317 1185.322 1185.854 1182.624 1181.768 1178.555 1178.564 1180.437 1180.356 1179.014 1179.324 1178.687 1177.787 1177.876 1177.732 1177.654 1176.699 1174.418 1171.08 1167.831 1163.647 1163.633 1171.154 1176.971 1177.778 1177.776 1180.346 1184.157 1187.763 1192.355 1194.627 1195.975 1197.437 1197.905 1200.568 1208.02 1216.862 1221.053 
1216.053 1209.093 1204.443 1200.669 1195.299 1188.541 1186.394 1187.012 1184.724 1183.395 1183.007 1179.204 1177.438 1177.82 1181.67 1185.49 1190.954 1196.169 1203.032 1203.648 1199.138 1191.867 1181.391 1188.849 1195.534 1200.9 1202.216 1202.988 1199.841 1196.294 1191.417 1185.149 1183.726 1183.541 1172.507 1174.637 1177.399 1185.192 1185.764 1182.21 1181.245 1179.087 1180.189 1180.506 1181.023 1180.08 1179.98 1179.62 1178.981 1178.773 1178.704 1178.439 1178.079 1175.889 1174.748 1173.772 1166.359 1163.996 1166.871 1174.696 1178.125 1178.487 1182.69 1187.798 1191.787 1195.128 1197.313 1200.407 1202.731 1204.143 1202.105 1212.194 1219.285 1224.724 
1217.424 1210.037 1205.308 1201.011 1193.693 1191.594 1192.082 1192.255 1188.507 1187.229 1186.112 1182.892 1181.593 1182.018 1184.965 1189.231 1195.011 1198.184 1207.936 1205.865 1201.677 1192.831 1185.006 1192.323 1200.605 1207.801 1206.597 1205.707 1201.069 1197.11 1194.17 1190.492 1186.422 1186.662 1170.912 1174.312 1179.642 1183.823 1185.67 1182.441 1181.09 1179.753 1180.147 1180.322 1180.224 1181.088 1180.48 1180.301 1180.111 1180.048 1179.649 1179.338 1178.17 1177.745 1177.79 1176.567 1172.106 1165.042 1165.663 1175.076 1182.079 1187.38 1191.29 1192.559 1195.697 1197.26 1199.699 1205.29 1207.775 1209.964 1206.825 1214.518 1221.443 1227.593 
1219.723 1213.536 1205.12 1199.531 1192.988 1193.785 1196.202 1196.538 1192.326 1190.26 1188.09 1183.8 1183.104 1184.218 1186.134 1192.849 1198.78 1203.165 1213.068 1209.787 1202.668 1191.462 1188.696 1191.876 1200.157 1212.571 1210.506 1208.511 1207.126 1204.336 1199.797 1194.629 1190.775 1186.803 1172.609 1174.69 1180.759 1183.173 1185.784 1183.625 1181.817 1181.798 1180.488 1180.529 1180.635 1180.928 1181.361 1181.164 1181.116 1180.958 1179.748 1179.61 1179.072 1178.672 1178.8 1177.716 1174.302 1166.463 1166.318 1174.174 1186.46 1191.586 1198.085 1200.472 1202.016 1201.182 1203.182 1208.331 1211.159 1213.319 1211.886 1214.971 1222.932 1229.412 
1222.21 1210.914 1205.224 1197.102 1195.187 1198.822 1203.343 1201.474 1198.498 1195.059 1192.116 1187.213 1184.981 1181.763 1184.174 1193.65 1200.253 1210.127 1216.688 1212.668 1203.653 1196.543 1191.224 1194.024 1198.554 1211.459 1214.532 1210.744 1210.221 1207.863 1204.286 1198.022 1193.126 1188.802 1174.924 1177.267 1181.04 1183.209 1186.18 1187.77 1185.212 1185.184 1182.774 1182.418 1183.907 1183.685 1182.77 1182.362 1182.478 1182.197 1180.593 1180.339 1180.238 1179.24 1178.669 1177.687 1174.88 1167.54 1166.925 1174.619 1187.672 1193.372 1202.421 1205.36 1206.481 1207.218 1207.401 1210.821 1214.715 1217.039 1217.997 1214.373 1221.615 1229.166 
1214.105 1207.826 1201.554 1197.174 1199.508 1207.753 1209.421 1208.229 1206.372 1202.563 1196.966 1194.051 1189.164 1186.165 1187.095 1195.918 1202.342 1213.907 1219.417 1212.754 1205.822 1198.142 1193.957 1195.577 1198.595 1212.225 1216.755 1212.55 1209.976 1208.013 1204.214 1199.395 1193.69 1186.557 1176.532 1179.649 1183.098 1185.909 1189.134 1195.276 1196.844 1189.818 1188.035 1183.628 1186.772 1186.818 1183.899 1182.897 1186.345 1186.421 1184.291 1182.608 1180.513 1180.04 1180.574 1181.264 1177.852 1168.889 1168.113 1175.022 1188.703 1195.515 1203.49 1208.996 1209.777 1212.747 1214.219 1213.622 1217.299 1217.989 1221.221 1214.528 1222.116 1227.969 
1212.028 1207.786 1203.088 1202.071 1207.594 1212.869 1214.348 1213.581 1212.076 1210.507 1205.454 1200.192 1194.153 1192.468 1195.722 1203.065 1206.323 1216.756 1221.002 1212.382 1208.05 1200.496 1195.816 1197.554 1199.996 1211.709 1218.687 1215.947 1214.451 1211.547 1206.083 1199.083 1194.217 1182.056 1177.526 1186.347 1186.427 1189.454 1190.824 1197.31 1202.222 1197.375 1189.66 1185.712 1188.939 1189.613 1188.994 1189.417 1191.393 1190.799 1188.134 1185.656 1183.077 1181.38 1183.747 1184.337 1178.675 1169.477 1168.658 1175.376 1189.793 1197.202 1203.688 1210.287 1213.672 1216.491 1219.278 1218.08 1219.155 1221.158 1223.674 1218.467 1217.847 1225.085 
1211.274 1207.419 1204.43 1211.461 1213.994 1216.698 1219.741 1220.194 1218.67 1218.295 1215.813 1208.825 1202.096 1197.57 1199.572 1204.355 1208.553 1222.936 1222.074 1215.053 1209.7 1198.792 1195.771 1199.085 1202.716 1215.554 1222.209 1220.573 1219.931 1212.599 1205.216 1199.352 1190.107 1180.81 1188.106 1191.615 1190.661 1190.635 1193.205 1201.633 1206.207 1202.173 1194.243 1188.071 1190.045 1191.822 1194.172 1194.803 1195.592 1194.33 1191.982 1189.172 1186.742 1185.433 1186.272 1186.807 1181.309 1173.307 1169.668 1176.714 1187.283 1195.717 1203.063 1211.176 1216.015 1219.069 1221.883 1221.068 1222.286 1224.739 1225.772 1222.487 1218.277 1222.174 
1210.82 1207.686 1210.884 1215.736 1218.49 1221.092 1225.239 1227.26 1226.313 1225.33 1223.235 1218.214 1209.151 1203.075 1204.513 1210.246 1215.998 1226.546 1224.432 1217.94 1211.881 1199.962 1198.741 1203.203 1207.071 1219.409 1225.061 1222.931 1221.809 1216.87 1208.058 1199.986 1186.87 1185.433 1195.27 1196.186 1194.976 1197.255 1200.068 1205.086 1208.007 1201.319 1194.885 1190.09 1191.432 1197.224 1200.75 1200.129 1199.804 1198.035 1195.386 1192.637 1190.365 1189.245 1188.358 1185.208 1184.873 1181.389 1170.743 1174.483 1183.538 1195.259 1201.7 1209.179 1216.915 1220.778 1223.453 1223.339 1225.545 1228.167 1228.718 1226.3 1220.882 1219.747 
1210.62 1210.7 1214.364 1220.348 1223.815 1226.617 1231.029 1233.478 1233.121 1230.308 1227.762 1224.642 1215.922 1209.943 1214.519 1220.892 1227.451 1226.334 1223.467 1219.478 1212.969 1201.191 1202.797 1207.11 1214.05 1225.259 1227.675 1223.543 1221.46 1216.201 1207.585 1199.17 1189.686 1192.42 1198.535 1198.346 1198.841 1201.193 1203.394 1207.399 1209.765 1201.606 1193.249 1191.953 1194.709 1201.428 1206.8 1203.956 1202.623 1201.449 1199.927 1196.934 1193.846 1192.391 1190.236 1186.731 1188.429 1186.924 1173.123 1173.326 1180.999 1191.896 1200.165 1206.799 1214.108 1221.776 1224.74 1226.304 1228.895 1231.299 1231.698 1230.471 1223.895 1221.512 
1213.512 1217.555 1222.267 1226.572 1229.624 1232.562 1236.89 1239.126 1238.808 1235.474 1230.834 1227.944 1226.745 1226.719 1228.458 1228.343 1231.245 1229.578 1227.208 1222.344 1213.297 1204.367 1206.946 1210.996 1219.138 1229.938 1230.714 1225.287 1221.087 1213.945 1208.171 1202.107 1199.696 1200.57 1201.602 1200.679 1200.726 1204.195 1209.859 1213.919 1210.318 1203.143 1195.535 1195.502 1199.735 1207.125 1209.994 1208.608 1208.731 1208.378 1205.9 1200.736 1197.539 1195.431 1189.567 1189.983 1191.667 1189.638 1182.098 1173.357 1178.415 1188.568 1196.747 1204.581 1212.952 1221.979 1226.051 1228.86 1231.679 1234.224 1234.904 1233.797 1227.101 1224.401 
1218.33 1223.671 1228.32 1232.426 1236.125 1238.856 1241.596 1244.37 1244.401 1240.923 1236.809 1234.933 1234.573 1236.987 1235.883 1236.737 1234.175 1232.298 1230.081 1225.488 1211.575 1207.538 1211.027 1214.219 1224.532 1233.347 1231.021 1225.643 1220.693 1212.515 1207.258 1201.968 1203.567 1206.763 1207.005 1206.948 1209.663 1216.472 1221.445 1222.215 1213.898 1206.355 1197.984 1198.638 1205.942 1212.081 1214.722 1214.453 1214.859 1213.708 1209.666 1203.869 1199.082 1197.351 1190.578 1192.953 1193.014 1191.821 1186.857 1174.766 1176.569 1186.512 1195.257 1203.348 1210.619 1220.232 1226.042 1230.649 1233.851 1236.639 1237.96 1237.776 1232.795 1227.837 
1220.834 1229.319 1234.127 1238.555 1242.497 1245.043 1246.823 1249.777 1249.947 1247.251 1246.403 1244.482 1244.379 1244.681 1241.256 1237.714 1234.396 1230.325 1227.23 1224.352 1219.527 1212.694 1215.205 1222.969 1230.7 1234.577 1231.276 1226.957 1221.996 1211.344 1207.557 1208.637 1210.488 1211.625 1214.107 1217.554 1221.341 1224.85 1228.055 1226.217 1219.855 1210.403 1200.633 1202.191 1211.618 1218.484 1219.55 1219.519 1218.835 1217.114 1212.9 1208.238 1201.88 1196.27 1191.77 1194.885 1193.897 1192.436 1190.058 1177.444 1177.78 1185.507 1192.646 1200.548 1209.446 1215.059 1222.321 1230.531 1235.742 1238.447 1240.688 1241.303 1237.328 1232.631 
1224.11 1235.087 1240.248 1246.464 1249.95 1251.412 1253.633 1255.694 1255.644 1256.449 1255.99 1254.444 1253.705 1251.757 1244.747 1237.982 1233.591 1228.762 1225.032 1222.815 1215.958 1217.181 1220.792 1230.192 1232.696 1231.739 1229.263 1226.137 1219.443 1212.412 1213.027 1214.602 1216.194 1218.22 1220.316 1222.979 1226.658 1231.331 1232.824 1229.823 1224.389 1217.482 1203.544 1205.687 1215.778 1223.154 1223.749 1223.333 1222.329 1221.103 1217.16 1209.375 1200.555 1194.203 1196.069 1195.024 1194.058 1193.413 1190.211 1181.021 1177.793 1185.829 1190.369 1196.913 1205.921 1213.406 1219.775 1227.859 1233.344 1238.28 1243.151 1243.808 1240.821 1236.336 
1231.934 1241.391 1248.13 1254.386 1256.902 1258.411 1260.635 1261.434 1261.472 1263.629 1262.202 1260.407 1257.998 1253.989 1245.497 1238.697 1232.88 1228.345 1224.833 1220.75 1219.468 1223.141 1227.616 1233.006 1234.163 1231.626 1227.61 1221.851 1217.643 1218.82 1220.182 1221.706 1224.199 1226.836 1227.49 1228.517 1231.992 1236.39 1234.982 1231.149 1225.567 1213.005 1208.147 1210.157 1217.479 1222.788 1226.288 1228.604 1226.531 1224.11 1215.642 1206.081 1200.59 1197.286 1197.163 1194.388 1194.273 1193.855 1190.22 1187.326 1178.511 1186.839 1190.891 1195.453 1203.175 1211.174 1216.813 1225.374 1232.326 1238.347 1243.481 1245.748 1243.876 1238.523 
1241.883 1247.792 1254.282 1260.504 1262.548 1264.702 1266.21 1266.449 1266.471 1268.442 1266.766 1264.514 1261.524 1254.954 1246.791 1240.011 1232.367 1226.859 1225.289 1221.012 1226.375 1230.731 1233.458 1234.324 1233.515 1231.394 1224.254 1222.298 1223.749 1226.113 1227.359 1230.314 1233.805 1235.758 1235.328 1235.355 1239.432 1240.595 1237.983 1231.875 1219.612 1214.811 1213.964 1215.693 1218.494 1225.789 1229.6 1231.757 1227.792 1219.467 1211.194 1203.781 1201.909 1201.037 1199.892 1197.585 1196.433 1194.296 1190.519 1189.321 1179.958 1185.69 1193.879 1199.352 1205.994 1213.957 1221.969 1227.878 1234.766 1242.107 1246.84 1248.26 1245.747 1239.053 
1247.793 1254.099 1258.744 1262.558 1267.276 1270.379 1271.299 1271.239 1271.75 1272.201 1271.443 1269.141 1265.52 1255.111 1247.422 1240.881 1232.938 1228.258 1228.262 1228.473 1234.247 1236.455 1235.502 1235.052 1234.13 1231.253 1227.236 1228.148 1231.029 1233.278 1235.454 1238.573 1241.229 1242.917 1243.367 1244.543 1246.317 1244.099 1241.014 1231.781 1223.042 1220.049 1219.358 1220.915 1223.174 1228.901 1231.638 1233.492 1224.693 1215.653 1210.517 1205.125 1204.534 1203.457 1202.847 1201.414 1198.77 1195.363 1191.358 1187.246 1181.673 1181.988 1196.139 1204.73 1209.367 1217.728 1227.403 1234.034 1238.604 1245.045 1251.188 1251.03 1247.367 1239.794 
1257.247 1261.593 1265.304 1268.691 1272.875 1275.628 1276.209 1276.207 1276.757 1275.597 1275.414 1273.629 1268.568 1257.994 1247.398 1240.406 1233.258 1230.811 1232.458 1237.182 1239.348 1237.375 1237.389 1237.257 1236.413 1231.582 1231.673 1234.122 1238.237 1242.813 1245.391 1247.493 1247.87 1250.272 1251.45 1251.975 1250.202 1246.914 1239.694 1230.954 1227.532 1226.034 1225.651 1225.397 1231.19 1232.806 1237.16 1232.317 1221.755 1216.186 1208.573 1207.946 1211.806 1209.57 1208.508 1207.466 1204.909 1199.164 1193.212 1188.903 1184.367 1181.187 1193.306 1205.615 1211.979 1221.686 1231.496 1238.544 1245.363 1248.221 1252.198 1252.143 1248.972 1243.057 
1264.42 1269.641 1274.024 1276.588 1279.147 1281.229 1281.279 1281.174 1281.304 1279.32 1278.83 1277.24 1271.903 1256.81 1246.291 1239.45 1236.447 1235.753 1239.427 1242.666 1241.604 1240.124 1241.191 1241.193 1238.304 1235.852 1237.986 1241.037 1249.635 1253.365 1254.945 1254.131 1253.691 1256.774 1257.399 1255.812 1252.377 1246.178 1239.495 1234.609 1233.931 1233.87 1232.081 1231.017 1237.596 1238.598 1242.119 1231.193 1222.158 1215.855 1209.894 1213.733 1216.202 1216.198 1215.618 1214.717 1212.423 1208.706 1199.546 1193.012 1187.399 1184.389 1187.301 1202.821 1212.975 1223.141 1233.42 1240.514 1246.77 1250.01 1252.118 1253.31 1251.468 1246.66 
1272.027 1278.625 1282.068 1284.079 1285.98 1287.293 1287.312 1286.039 1285.516 1281.961 1279.193 1276.189 1269.06 1254.786 1245.576 1240.245 1239.377 1240.68 1244.923 1245.254 1243.848 1245.277 1248.05 1245.197 1241.915 1242.399 1244.668 1249.682 1258.239 1260.777 1260.918 1259.594 1259.26 1260.455 1260.397 1258.058 1252.588 1248.985 1246.658 1243.469 1242.785 1240.655 1237.877 1240.797 1245.803 1247.045 1242.567 1230.395 1221.174 1214.567 1213.171 1217.865 1221.765 1221.826 1221.321 1221.066 1218.514 1213.054 1205.07 1198.26 1196.306 1187.945 1185.031 1196.642 1208.921 1218.888 1230.483 1240.095 1244.055 1249.821 1254.484 1253.891 1253.676 1250.129 
1278.558 1285.241 1287.851 1291.04 1293.48 1294.086 1292.496 1291.221 1288.954 1280.811 1277.415 1273.429 1263.237 1255.182 1246.373 1243.361 1244.026 1246.554 1247.55 1247.588 1248.57 1251.287 1252.719 1249.819 1249.715 1250.268 1253.624 1259.408 1262.101 1263.442 1263.624 1263.612 1264.619 1264.643 1263.723 1260.817 1258.256 1253.486 1251.807 1250.531 1249.163 1246.25 1244.554 1248.522 1253.535 1251.163 1239.203 1225.667 1221.763 1218.978 1217.047 1222.279 1227.654 1228.609 1229.531 1228.673 1225.007 1217.187 1210.776 1207.21 1203.911 1194.476 1186.405 1188.747 1206.108 1215.151 1225.681 1237.623 1242.382 1247.089 1254.946 1256.36 1257.62 1255.309 
1287.865 1291.246 1292.673 1296.355 1299.329 1301.563 1298.573 1294.687 1290.571 1281.318 1275.705 1267.56 1261.89 1255.991 1247.841 1247.416 1249.366 1250.762 1251.048 1251.75 1254.212 1256.002 1257.044 1256.008 1256.158 1257.838 1260.917 1264.574 1266.643 1266.582 1266.539 1268.692 1269.13 1268.814 1266.488 1264.215 1262.527 1259.133 1257.79 1255.921 1254.104 1252.011 1251.473 1256.1 1255.484 1249.412 1232.114 1227.053 1223.976 1221.629 1222.207 1228.325 1233.015 1235.467 1237.261 1235.202 1230.194 1224.362 1216.843 1211.17 1207.671 1199.883 1188.227 1187.428 1197.658 1211.969 1220.195 1234.253 1241.293 1245.233 1252.573 1256.882 1259.177 1260.267 
1294.477 1295.489 1296.778 1300.517 1302.926 1302.804 1299.722 1295.006 1289.292 1284.396 1278.874 1266.321 1260.302 1253.237 1251.479 1252.975 1254.899 1257.083 1258.331 1257.478 1259.086 1261.257 1260.812 1261.559 1262.607 1265.287 1266.168 1267.602 1268.157 1268.889 1272.465 1273.104 1273.2 1272.066 1269.799 1268.903 1266.684 1265.12 1263.115 1260.872 1258.879 1257.247 1256.986 1258.492 1255.918 1243.612 1233.568 1229.397 1227.39 1225.583 1227.26 1233.976 1238.739 1241.172 1242.595 1238.663 1234.848 1229.013 1223.031 1217.431 1212.405 1208.276 1194.739 1188.325 1189.985 1208.067 1218.44 1231.157 1241.648 1244.815 1250.918 1254.844 1257.656 1260.503 
1288.027 1296.36 1299.76 1302.43 1303.281 1302.13 1300.01 1294.634 1287.511 1279.611 1270.988 1264.199 1258.994 1255.353 1257.935 1261.922 1263.261 1266.141 1267.3 1265.511 1265.065 1266.462 1264.394 1266.061 1267.783 1269.533 1269.431 1269.982 1271.785 1276.019 1277.249 1277.38 1277.868 1275.431 1272.769 1272.648 1271.632 1270.06 1268.011 1265.759 1263.703 1262.271 1262.625 1262.316 1256.067 1240.961 1235.432 1233.057 1229.858 1229.322 1233.157 1241.043 1244.265 1246.776 1247.728 1242.967 1238.256 1233.768 1231.519 1225.745 1218.06 1213.767 1204.522 1189.612 1189.503 1205.664 1217.43 1229.101 1239.444 1244.903 1249.413 1253.864 1257.848 1260.767 
1282.116 1290.047 1297.831 1302.918 1305.335 1303.4 1299.25 1289.649 1279.149 1276.089 1269.836 1263.381 1260.083 1263.147 1268.541 1271.16 1272.557 1273.345 1273.62 1273.407 1272.94 1272.123 1271.116 1271.716 1274.056 1273.062 1273.217 1274.949 1278.459 1281.395 1281.959 1282.335 1281.055 1277.162 1275.932 1277.664 1276.44 1274.875 1272.851 1270.613 1269.707 1269.186 1269.744 1261.635 1250.492 1240.437 1238.832 1237.286 1235.633 1235.602 1239.93 1247.923 1249.829 1250.395 1252.079 1250.222 1242.605 1237.925 1237.447 1231.633 1223.762 1218.391 1208.104 1191.619 1190.297 1202.824 1215.135 1226.389 1236.392 1242.886 1249.267 1253.524 1256.135 1259.494 
1279.637 1292.01 1298.344 1304.949 1305.434 1300.935 1296.471 1284.54 1274.752 1271.689 1268.787 1264.943 1267.691 1273.807 1275.893 1278.202 1281.417 1282.892 1281.987 1279.587 1279.51 1278.267 1278.233 1279.862 1280.758 1279.468 1279.33 1282.159 1286.055 1286.583 1287.013 1286.634 1282.076 1279.913 1282.415 1282.697 1281.462 1279.874 1277.85 1276.239 1278.486 1276.411 1270.981 1260.203 1248.861 1242.522 1244.789 1246.301 1245.735 1244.769 1249.173 1253.567 1255.461 1256.386 1257.822 1255.746 1248.463 1241.313 1239.654 1235.099 1225.811 1223.658 1216.999 1193.622 1191.936 1201.343 1212.877 1223.072 1231.669 1239.174 1247.348 1253.33 1257.581 1259.212 
1277.846 1290.312 1295.953 1303.634 1304.23 1298.445 1293.774 1285.156 1275.163 1273.04 1271.22 1273.308 1275.675 1278.269 1280.777 1281.674 1287.369 1290.135 1288.742 1285.304 1285.308 1284.532 1281.872 1283.576 1286.267 1286.186 1286.339 1287.511 1289.778 1290.362 1289.136 1288.633 1286.443 1287.664 1288.808 1287.885 1286.66 1285.007 1282.992 1285.288 1283.896 1280.066 1267.161 1259.031 1249.521 1246.902 1253.764 1257.703 1256.005 1254.498 1257.1 1259.007 1260.643 1262.249 1262.178 1259.459 1252.597 1248.49 1245.245 1236.905 1226.014 1224.538 1218.274 1195.691 1193.358 1203.374 1213.582 1219.83 1228.465 1239.093 1246.337 1252.383 1258.386 1262.14 
1279.46 1286.62 1295.603 1302.243 1302.226 1294.918 1289.808 1280.77 1276.958 1277.717 1281.56 1282.032 1280.794 1283.988 1285.461 1285.139 1288.585 1291.612 1292.024 1291.518 1291.583 1290.018 1288.455 1288.309 1290.652 1295.281 1295.15 1293.272 1293.94 1294.944 1294.589 1292.401 1293.609 1294.824 1293.798 1293.06 1291.764 1289.988 1290.595 1289.827 1287.253 1276.947 1266.923 1259.71 1254.398 1256.19 1263.713 1265.227 1263.356 1261.545 1262.489 1264.19 1265.448 1264.778 1264.323 1260.568 1252.452 1245.743 1244.413 1236.576 1226.988 1224.322 1219.039 1200.025 1194.823 1203.847 1214.638 1220.814 1229.216 1237.915 1245.846 1253.23 1256.785 1260.253 
1282.228 1288.065 1296.192 1302.701 1301.307 1294.064 1286.957 1280.305 1279.159 1287.029 1288.306 1286.441 1286.48 1289.735 1290.166 1289.779 1292.363 1295.842 1297.081 1296.915 1297.562 1296.545 1294.203 1294.433 1297.666 1302.686 1303.974 1304.742 1305.035 1303.302 1299.51 1298.662 1298.89 1299.906 1298.767 1297.966 1296.485 1295.339 1294.301 1292.899 1288.626 1276.185 1269.61 1264.325 1263.081 1266.853 1270.162 1268.927 1263.194 1262.805 1268.159 1269.959 1269.637 1267.406 1266.73 1262.357 1252.614 1245.856 1241.642 1236.34 1228.688 1221.907 1215.575 1202.583 1195.51 1203.591 1215.518 1223.594 1233.174 1239.265 1246.771 1250.975 1253.3 1257.098 
1283.943 1290.172 1296.641 1301.73 1298.434 1292.579 1287.131 1284.195 1286.238 1290.814 1291.204 1290.575 1292.415 1294.263 1294.435 1294.72 1295.613 1298.813 1301.543 1301.737 1303.034 1303.991 1302.592 1302.538 1306.362 1310.825 1312.253 1312.26 1311.273 1309.756 1306.311 1305.17 1305.253 1306.531 1304.94 1302.742 1300.766 1299.05 1297.581 1295.06 1289.211 1280.875 1273.165 1268.743 1268.426 1272.757 1272.046 1270.556 1267.857 1270.239 1273.134 1273.798 1272.434 1270.311 1269.022 1264.856 1255.338 1248.879 1244.657 1238.31 1230.405 1222.449 1213.635 1201.43 1196.178 1203.029 1215.137 1223.945 1231.422 1240.703 1245.265 1247.459 1249.517 1252.344 
1287.578 1292.933 1298.032 1303.871 1297.748 1293.573 1290.775 1292.128 1293.249 1295.838 1295.545 1296.101 1303.877 1302.169 1299.915 1297.666 1299.82 1301.691 1304.944 1305.851 1308.39 1310.586 1312.483 1313.892 1315.591 1316.411 1317.793 1317.323 1316.318 1314.253 1311.403 1310.786 1311.431 1312.084 1310.228 1307.2 1304.968 1303.085 1300.776 1296.48 1291.432 1285.731 1277.611 1275.412 1275.488 1275.751 1275.129 1274.195 1273.147 1275.156 1275.696 1275.192 1274.113 1273.215 1271.855 1268.523 1260.698 1253.168 1247.398 1240.163 1232.681 1225.106 1215.57 1203.219 1196.826 1200.591 1213.057 1221.934 1232.165 1237.104 1239.997 1241.369 1243.258 1247.298 
1291.343 1294.909 1298.785 1306.432 1304.164 1299.378 1298.176 1298.981 1299.843 1300.17 1299.335 1303.917 1308.126 1307.091 1305.447 1302.627 1305.445 1305.569 1307.481 1309.073 1313.509 1316.02 1318.172 1319.552 1320.229 1321.804 1322.643 1321.72 1320.863 1318.024 1316.213 1315.641 1316.031 1314.518 1314.23 1311.227 1308.934 1306.949 1303.892 1298.88 1293.676 1288.508 1282.771 1280.507 1280.881 1280.825 1280.367 1279.593 1277.361 1276.056 1275.638 1275.654 1274.773 1274.907 1274.769 1271.926 1264.304 1255.883 1249.434 1243.558 1237.072 1229.94 1220.011 1206.089 1198.301 1198.853 1209.226 1217.605 1225.717 1227.863 1229.281 1232.68 1235.88 1243.669 
1295.824 1297.896 1299.468 1306.387 1307.292 1306.62 1306.682 1306.575 1304.177 1302.351 1304.293 1307.876 1311.826 1312.008 1308.784 1307.64 1312.455 1312.619 1310.28 1312.042 1318.469 1321.258 1323.037 1324.308 1325.299 1327.632 1327.046 1326.009 1324.951 1323.157 1321.525 1320.182 1319.735 1317.673 1316.018 1314.617 1312.09 1309.331 1305.77 1301.821 1296.782 1292.217 1288.771 1285.55 1285.878 1285.043 1282.945 1280.929 1279.216 1276.674 1278.261 1276.519 1274.712 1273.193 1274.332 1272.598 1264.883 1258.21 1254.506 1248.537 1241.352 1235.657 1225.923 1215.197 1204.079 1201.374 1200.961 1202.931 1208.027 1215.126 1219.719 1225.243 1230.879 1239.05 
1300.919 1302.534 1301.355 1305.042 1309.928 1310.961 1311.512 1311.168 1307.914 1306.81 1309.438 1311.688 1316.695 1317.345 1312.699 1311.397 1316.453 1320.775 1314.498 1315.565 1322.705 1326.429 1328.072 1329.626 1329.811 1331.65 1331.028 1330.475 1329.158 1327.579 1325.87 1323.914 1322.254 1319.911 1318.007 1317.169 1313.787 1310.075 1306.651 1302.344 1298.396 1296.675 1293.445 1291.24 1288.966 1286.425 1285.847 1284.9 1283.214 1281.797 1279.354 1277.005 1274.799 1272.798 1270.998 1269.626 1265.451 1263.787 1261.884 1255.709 1248.493 1240.949 1232.712 1223.552 1210.167 1200.946 1203.455 1203.609 1205.693 1208.15 1213.693 1219.949 1225.747 1231.687 
1305.898 1307.272 1310.304 1312.704 1314.344 1315.357 1316.224 1314.983 1312.554 1311.768 1313.527 1316.69 1322.025 1320.557 1316.691 1315.795 1321.233 1324.116 1320.327 1319.952 1324.251 1330.729 1333.403 1333.513 1333.097 1333.708 1333.092 1333.306 1332.932 1331.248 1329.058 1326.979 1325.357 1324.202 1321.733 1317.501 1312.557 1308.308 1305.204 1302.32 1299.486 1296.584 1293.727 1290.933 1287.969 1285.684 1284.502 1283.768 1281.625 1279.984 1277.896 1275.818 1273.824 1271.947 1270.556 1270.043 1267.76 1267.083 1265.248 1260.751 1254.99 1249.499 1240.898 1227.178 1214.448 1203.949 1210.357 1210.076 1208.989 1209.846 1213.585 1220.146 1223.263 1226.85 
1312.173 1312.847 1311.763 1313.914 1320.774 1321.721 1320.557 1318.778 1317.226 1316.204 1318.766 1323.5 1327.218 1323.403 1320.301 1319.421 1327.811 1328.6 1325.809 1325.571 1329.286 1335.235 1337.593 1336.775 1336.154 1336.37 1335.36 1335.53 1335.503 1333.697 1331.398 1329.489 1326.953 1323.921 1319.888 1314.288 1308.501 1304.989 1302.249 1299.46 1296.767 1294.11 1291.306 1288.253 1280.927 1278.815 1277.951 1276.45 1273.595 1269.408 1266.936 1268.912 1270.433 1270.233 1270.312 1269.773 1270.023 1269.989 1268.822 1264.938 1258.54 1253.512 1244.512 1228.663 1218.179 1207.308 1208.75 1214.661 1213.559 1211.155 1213.753 1219.861 1222.124 1225.066 
1318.627 1320.815 1319.169 1320.649 1324.684 1325.23 1322.185 1320.442 1319.915 1321.528 1327.066 1330.811 1330.64 1326.543 1322.346 1320.876 1332.667 1334.713 1334.082 1334.41 1337.093 1340.138 1341.228 1340.185 1339.973 1340.969 1340.722 1340.175 1337.982 1335.27 1332.746 1330.232 1326.773 1320.476 1312.586 1306.427 1302.879 1300.059 1297.252 1294.682 1292.304 1289.898 1286.004 1283.132 1279.339 1273.481 1270.457 1267.334 1264.315 1261.727 1260.2 1259.688 1259.28 1259.01 1261.992 1264.021 1264.079 1267.155 1266.921 1264.39 1259.328 1253.817 1242.223 1229.193 1219.849 1212.334 1212.083 1218.88 1218.658 1211.885 1212.734 1218.024 1221.184 1223.185 
1326.529 1328.21 1328.522 1329.051 1329.232 1328.289 1324.923 1324.022 1324.683 1326.85 1332.516 1335.323 1334.122 1329.581 1325.043 1326.046 1334.609 1337.751 1339.143 1340.902 1342.661 1344.726 1344.611 1344.702 1345.266 1345.392 1344.268 1342.059 1339.365 1336.379 1333.271 1330.113 1325.176 1315.221 1306.476 1301.347 1297.585 1292.702 1287.229 1282.54 1279.827 1276.628 1274.494 1273.528 1270.94 1267.129 1265.03 1262.205 1259.292 1255.94 1256.066 1254.479 1252.243 1250.13 1250.859 1255.093 1261.664 1263.251 1262.402 1260.94 1256.929 1252.511 1243.684 1229.395 1222.234 1214.983 1219.908 1225.815 1222.388 1218.312 1212.797 1212.92 1213.934 1215.529 
1334.466 1333.347 1333.732 1334.351 1333.646 1328.874 1326.318 1327.495 1329.349 1334.056 1338.739 1339.922 1338.964 1335.349 1323.498 1322.377 1338.671 1342.105 1342.922 1343.508 1345.035 1345.768 1345.485 1344.544 1343.804 1343.754 1344.686 1344.472 1340.398 1337.553 1334.257 1329.596 1321.597 1312.571 1305.779 1296.896 1292.317 1285.575 1282.134 1279.627 1276.758 1273.335 1271.454 1269.258 1265.883 1263.111 1260.176 1258.219 1255.277 1252.061 1252.178 1250.55 1246.821 1244.247 1244.373 1245.979 1249.396 1251.879 1248.388 1248.952 1248.821 1247.107 1241.387 1229.449 1220.776 1216.458 1224.421 1228.897 1227.894 1225.607 1220.82 1215.975 1213.712 1214.574 
1343.562 1340.076 1338.51 1338.244 1336.129 1330.577 1328.514 1330.711 1334.215 1341.032 1344.037 1344.335 1343.12 1341.054 1339.034 1339.496 1342.424 1345.048 1344.296 1344.151 1345.185 1345.029 1344.463 1343.917 1342.899 1342.894 1345.065 1345.461 1341.515 1337.711 1334.029 1329.083 1320.204 1312.258 1303.336 1295.053 1289.233 1283.893 1279.12 1276.37 1272.954 1269.759 1266.523 1264.464 1260.884 1258.416 1256.485 1254.926 1251.232 1248.603 1247.144 1243.192 1241.394 1239.532 1238.477 1239.806 1242.417 1242.634 1242.14 1241.914 1240.052 1237.453 1231.964 1226.263 1220.243 1221.014 1229.068 1230.928 1234.442 1231.957 1229.242 1225.158 1220.036 1215.793 
1352.185 1347.243 1344.523 1342.319 1338.541 1333.734 1332.942 1336.466 1339.535 1344.723 1347.689 1348.115 1346.914 1347.485 1345.838 1346.779 1349.345 1348.034 1345.033 1346.255 1345.993 1345.318 1344.307 1343.827 1342.26 1341.738 1340.308 1338.613 1337.227 1335.634 1332.45 1327.939 1320.861 1313.376 1302.539 1294.137 1287.412 1283.462 1278.943 1276.144 1272.595 1269.026 1265.574 1263.371 1260.658 1258.698 1256.392 1254.322 1250.643 1247.658 1245.58 1244.139 1244.548 1241.55 1239.029 1235.466 1234.86 1236.085 1236.88 1236.073 1233.831 1230.987 1226.282 1223.204 1226.866 1229.908 1232.373 1236.908 1240.084 1239.164 1235.068 1233.517 1230.416 1226.168 
1354.025 1350.9 1348.459 1344.924 1339.431 1338.138 1339.524 1342.369 1344.201 1349.419 1351.665 1352.448 1351.705 1353.297 1352.683 1352.703 1353.114 1351.936 1349.973 1347.679 1346.062 1345.51 1342.301 1339.022 1334.865 1335.539 1334.987 1332.768 1331.961 1330.532 1328.519 1325.636 1322.909 1315.105 1301.139 1293.545 1286.522 1284.625 1283.279 1280.108 1279.832 1276.703 1273.435 1271.732 1267.927 1265.909 1264.012 1261.314 1256.362 1253.548 1252.186 1251.063 1249.974 1247.492 1244.149 1240.443 1234.519 1232.248 1230.731 1229.328 1228.277 1227.951 1228.094 1232.034 1234.302 1238.086 1240.411 1243.015 1244.98 1243.943 1241.797 1239.316 1236.628 1234.255 
1356.498 1354.744 1349.831 1344.04 1343.585 1345.223 1347.454 1348.63 1350.178 1355.086 1356.983 1358.965 1357.918 1355.639 1355.893 1352.916 1353.288 1354.171 1355.218 1351.876 1348.607 1344.576 1334.386 1327.799 1327.061 1327.221 1326.933 1326.039 1322.329 1320.859 1320.858 1321.174 1319.571 1312.79 1303.039 1294.683 1286.336 1288.972 1290.292 1287.677 1285.448 1283.641 1279.942 1276.241 1273.172 1270.314 1267.676 1263.281 1260.812 1259.306 1257.869 1254.957 1253.815 1249.511 1246.456 1243.939 1239.373 1235.53 1233.288 1232.586 1231.351 1231.901 1234.151 1238.158 1241.471 1243.776 1247.515 1248.455 1248.626 1249.364 1248.735 1245.548 1242.254 1240.272 
1360.074 1357.189 1351.214 1350.216 1349.748 1351.47 1353.73 1354.159 1356.801 1359.508 1361.143 1362.401 1360.635 1357.971 1357.966 1354.854 1355.938 1357.34 1355.762 1352.563 1348.278 1340.659 1330.103 1322.546 1320.166 1318.21 1316.404 1316.843 1313.596 1314.412 1316.311 1315.642 1314.143 1309.235 1304.918 1297.311 1288.599 1293.603 1294.465 1294.17 1292.91 1287.37 1282.382 1280.149 1276.982 1274.679 1271.279 1263.785 1262.527 1263.657 1262.072 1258.718 1258.552 1252.71 1248.32 1244.397 1241.909 1240.677 1239.844 1238.634 1235.353 1236.71 1241.648 1245.578 1248.145 1249.284 1251.215 1251.939 1251.622 1252.333 1252.724 1249.532 1246.162 1246.221 
1365.009 1362.764 1361.734 1361.194 1360.498 1359.991 1359.449 1358.996 1360.93 1363.498 1365.274 1364.307 1362.321 1361.683 1361.874 1360.979 1358.256 1355.794 1354.641 1352.033 1345.726 1334.923 1323.539 1321.996 1321.706 1319.836 1318.82 1316.089 1312.016 1308.596 1305.405 1308.065 1310.198 1308.056 1305.201 1296.683 1290.935 1297.071 1299.751 1301.278 1297.671 1291.629 1286.359 1283.955 1281.758 1279.251 1273.058 1267.181 1266.618 1269.688 1268.139 1263.589 1263.624 1258.801 1253.39 1248.189 1247.85 1247.741 1247.014 1240.695 1238.658 1242.968 1246.725 1252.876 1254.938 1255.033 1254.927 1254.938 1253.868 1253.29 1253.64 1251.417 1251.106 1249.553 
1370.399 1369.065 1367.187 1365.329 1364.537 1364.651 1364.773 1364.188 1366.27 1366.909 1367.558 1366.238 1362.158 1358.408 1356.646 1355.428 1354.607 1351.658 1351.56 1349.56 1342.506 1332.843 1323.625 1324.693 1324.589 1324.177 1324.335 1321.041 1317.579 1314.959 1309.63 1304.085 1301.105 1302.505 1301.964 1294.732 1295.094 1298.618 1304.135 1304.987 1300.81 1296.06 1291.488 1287.504 1285.036 1282.951 1273.729 1270.638 1275.814 1275.563 1274.7 1270.991 1268.609 1268.668 1266.273 1263.203 1259.472 1257.61 1250.721 1243.436 1242.87 1247.87 1255.032 1258.454 1259.479 1259.676 1258.599 1258.523 1258.617 1257.201 1256.404 1255.471 1253.748 1250.509 
1376.555 1374.109 1371.014 1368.279 1366.387 1365.15 1363.19 1362.234 1363.859 1363.245 1362.819 1360.976 1355.977 1353.013 1350.594 1350.088 1348.62 1346.452 1346.955 1344.634 1338.458 1329.396 1324.576 1326.835 1331.154 1332.912 1331.909 1325.576 1322.568 1319.624 1316.249 1309.965 1304.549 1301.699 1298.698 1297.278 1299.895 1302.542 1307.533 1308.804 1305.525 1300.463 1295.777 1291.107 1288.045 1281.087 1275.602 1282.191 1282.558 1281.381 1279.798 1277.289 1273.845 1275.107 1272.511 1270.927 1266.09 1265.009 1255.278 1247.229 1247.17 1253.563 1259.688 1262.432 1263.455 1263.631 1261.69 1262.411 1262.309 1260.865 1260.648 1260.169 1255.611 1250.332 
1378.374 1375.703 1372.424 1369.286 1365.099 1359.877 1359.706 1359.048 1357.644 1357.077 1356.977 1354.012 1350.312 1348.542 1347.345 1344.395 1341.533 1339.963 1341.647 1339.702 1335.269 1326.802 1327.889 1330.695 1338.057 1340.699 1336.573 1330.139 1327.249 1324.362 1321.283 1314.778 1309.415 1304.758 1302.56 1302.259 1304.159 1307.172 1307.71 1310.248 1309.307 1304.426 1299.681 1294.72 1290.137 1281.603 1283.486 1289.682 1288.96 1287.895 1285.931 1281.573 1278.188 1276.942 1277.094 1275.701 1271.315 1264.295 1255.01 1248.668 1250.879 1258.078 1265.687 1268.77 1269.225 1267.395 1265.932 1267.204 1266.506 1266.206 1264.864 1261.315 1254.768 1248.646 
1380.559 1377.402 1372.311 1368.374 1360.832 1357.087 1355.983 1354.715 1352.115 1349.88 1346.925 1345.349 1342.321 1341.918 1336.67 1331.795 1330.855 1330.14 1331.135 1336.596 1331.129 1327.159 1335.874 1337.933 1341.245 1342.447 1341.402 1335.501 1332.038 1331.307 1328.496 1323.03 1315.138 1309.697 1307.235 1307.629 1310.57 1312.925 1312.035 1311.816 1312.247 1308.487 1303.654 1298.479 1288.149 1286.834 1290.154 1293.167 1293.059 1291.964 1284.917 1280.154 1279.548 1279.984 1280.988 1280.193 1273.109 1266.639 1258.631 1255.434 1258.292 1265.238 1270.258 1274.769 1274.452 1271.282 1268.309 1269.505 1269.807 1270.419 1265.917 1258.429 1253.694 1246.029 
1380.952 1375.06 1369.352 1364.349 1360.683 1355.219 1352.472 1350.892 1347.558 1344.563 1341.1 1338.021 1336.472 1333.971 1335.922 1339.315 1341.2 1338.586 1331.179 1328.898 1329.701 1336.901 1343.284 1344.04 1345.455 1345.943 1345.729 1341.053 1337.997 1335.065 1333.237 1328.422 1323.549 1316.266 1314.485 1316.017 1316.785 1318.338 1317.041 1316.815 1315.482 1312.206 1307.672 1301.424 1291.01 1292.764 1296.848 1297.135 1299.732 1292.565 1285.167 1282.482 1281.692 1283.595 1285.535 1284.225 1276.535 1272.503 1268.255 1266.911 1266.7 1272.131 1280.06 1278.589 1276.487 1273.379 1270.601 1271.606 1271.478 1267.505 1261.022 1254.481 1250.698 1244.05 
1377.404 1371.349 1367.361 1363.878 1360.206 1351.252 1348.909 1347.246 1347.694 1349.582 1348.027 1345.262 1340.106 1337.664 1346.459 1349.172 1349.647 1340.496 1335.273 1338.03 1342.59 1345.253 1351.564 1350.786 1349.928 1350.64 1349.579 1343.998 1339.337 1336.62 1334.965 1331.368 1328.233 1322.886 1322.13 1323.703 1324.941 1322.983 1321.644 1320.794 1319.396 1315.874 1311.385 1299.328 1295.279 1301.36 1302.091 1304.622 1303.491 1295.64 1290.193 1288.43 1288.699 1289.625 1288.857 1287.018 1280.957 1276.548 1273.454 1273.278 1275.359 1283.024 1283.339 1281.842 1278.854 1274.382 1270.87 1268.864 1265.719 1263.535 1257.002 1253.321 1247.794 1238.667 
1372.769 1367.807 1364.639 1362.323 1356.439 1350.277 1350.339 1353.214 1354.57 1353.837 1353.5 1352.302 1343.457 1346.638 1353.549 1359.46 1352.042 1344.263 1337.918 1341.679 1344.315 1352.582 1360.712 1356.521 1354.876 1351.768 1349.641 1344.457 1341.696 1338.12 1335.791 1334.734 1333.304 1331.63 1332.689 1333.674 1332.25 1328.17 1326.498 1325.887 1323.323 1319.726 1315.443 1301.044 1299.62 1307.772 1310.36 1311.736 1308.62 1301.792 1295.802 1296.475 1296.303 1294.135 1292.329 1289.288 1284.713 1280.431 1279.534 1281.606 1283.812 1285.782 1286.441 1284.926 1278.888 1267.692 1264.207 1261.624 1256.781 1252.962 1250.816 1244.303 1238.92 1241.131 
1371.734 1367.208 1363.418 1359.284 1352.826 1352.993 1357.676 1361.315 1360.681 1360.612 1359.233 1351.1 1345.545 1351.628 1357.031 1362.164 1352.61 1347.076 1340.648 1344.794 1348.382 1357.878 1361.603 1357.643 1356.338 1352.529 1348.261 1343.791 1342.885 1340.454 1339.31 1339.054 1338.912 1339.113 1340.32 1337.424 1336.388 1334.133 1332.309 1330.822 1327.404 1323.686 1317.729 1303.568 1309.634 1315.708 1317.658 1317.252 1313.978 1305.825 1303.829 1303.881 1301.525 1298.63 1296.496 1293.331 1291.191 1290.415 1288.959 1286.326 1286.007 1286.564 1287.571 1275.969 1267.643 1261.702 1254.333 1246.921 1245.402 1244.284 1245.017 1245.594 1249.919 1250.751 
1370.918 1365.976 1361.462 1355.497 1355.466 1361.523 1366.536 1367.814 1369.282 1369.161 1361.086 1352.213 1347.378 1359.479 1362.801 1362.931 1356.263 1352.774 1344.059 1346.163 1349.303 1357.704 1363.02 1358.883 1355.235 1350.538 1346.271 1345.173 1344.366 1343.314 1342.907 1342.231 1342.674 1344.934 1346.926 1346.478 1343.18 1340.301 1337.969 1334.949 1331.451 1327.61 1320.287 1309.242 1319.214 1322.391 1323.333 1321.385 1317.314 1311.904 1311.187 1309.285 1307.074 1305.985 1299.884 1296.931 1294.373 1293.14 1290.893 1288.217 1287.454 1284.035 1273.687 1266.089 1257.948 1248.37 1248.698 1249.191 1251.922 1254.679 1254.872 1255.824 1257.323 1260.217 
1369.438 1364.484 1359.308 1357.468 1359.784 1368.779 1372.769 1376.389 1377.121 1372.632 1361.928 1353.462 1349.407 1364.905 1367.42 1367.07 1364.355 1359.321 1349.001 1351.232 1353.679 1362.46 1366.222 1361.114 1355.184 1349.741 1347.718 1346.778 1346.838 1346.237 1346.205 1347.309 1348.161 1351.721 1354.021 1352.837 1349.167 1345.494 1342.353 1338.941 1335.09 1330.236 1318.755 1315.902 1327.486 1328.19 1328.412 1324.337 1320.807 1318.344 1317.113 1315.721 1314.057 1312.142 1307.036 1299.974 1295.999 1292.705 1288.718 1287.14 1281.912 1274.641 1265.178 1253.754 1250.032 1260.056 1262.573 1265.043 1265.26 1262.829 1261.533 1260.54 1263.625 1267.424 
1366.578 1362.704 1359.491 1361.008 1365.617 1375.452 1381.136 1384.563 1381.099 1370.731 1362.574 1355.89 1364.01 1369.215 1371.665 1370.804 1369.774 1365.349 1356.511 1355.279 1357.519 1367.455 1370.427 1362.781 1354.677 1351.797 1350.022 1350.206 1350.437 1349.102 1350.263 1352.926 1355.885 1359.44 1360.493 1358.536 1354.29 1349.757 1346.144 1341.953 1337.556 1327.094 1320.706 1323.152 1333.537 1334.141 1332.139 1327.919 1325.335 1324.211 1323.889 1321.047 1320.219 1317.39 1310.45 1303.159 1296.436 1290.726 1286.47 1281.849 1276.365 1268.04 1259.284 1250.661 1262.891 1268.405 1272.735 1275.311 1273.996 1271.056 1268.867 1267.632 1268.287 1274.692 
1366.403 1362.452 1362.767 1367.859 1376.729 1384.441 1388.836 1388.926 1382.577 1373.464 1366.553 1359.96 1370.728 1372.935 1376.409 1374.805 1371.388 1362.647 1362.553 1361.627 1364.6 1375.717 1376.203 1365.64 1360.17 1352.151 1351.635 1352.013 1350.933 1352.404 1357.832 1360.238 1364.36 1366.216 1366.044 1363.644 1358.45 1353.78 1348.831 1344.075 1337.759 1328.408 1326.712 1337.684 1339.563 1339.884 1336.528 1332.689 1330.108 1332.347 1332.403 1327.037 1322.833 1317.101 1306.614 1299.718 1294.274 1288.265 1282.973 1277.601 1270.747 1263.015 1255.19 1252.809 1268.28 1275.794 1281.394 1285.12 1283.614 1281.121 1276.581 1274.297 1276.463 1279.458 
1365.988 1365.157 1370.422 1376.541 1387.97 1392.221 1394.511 1391.924 1388.984 1378.16 1370.533 1365.92 1376.035 1377.617 1380.549 1377.246 1373.241 1367.431 1371.241 1373.339 1380.83 1382.832 1379.886 1371.559 1364.411 1354.264 1353.152 1354.209 1355.029 1360.397 1364.897 1368.253 1371.211 1372.342 1371.307 1368.006 1363.115 1356.955 1351.449 1346.984 1339.662 1333.05 1341.193 1344.439 1345.714 1345.222 1342.418 1338.166 1335.783 1338.767 1337.121 1330.643 1323.47 1315.224 1303.587 1296.995 1290.528 1285.289 1279.755 1274.278 1266.89 1260.934 1254.406 1264.86 1272.904 1282.181 1289.649 1292.133 1291.267 1285.698 1281.922 1279.958 1279.301 1282.819 
1368.092 1369.721 1375.76 1382.354 1392.196 1398.066 1401.27 1396.997 1391.967 1383.405 1375.386 1372.199 1381.359 1383.059 1382.725 1379.763 1375.352 1371.154 1378.895 1383.234 1387.083 1387.176 1382.18 1373.804 1367.153 1360.387 1358.079 1361.566 1365.36 1369.72 1371.907 1376.574 1379.152 1378.279 1376.403 1372.61 1367.174 1360.537 1355.247 1350.255 1341.849 1343.22 1351.304 1350.981 1351.721 1350.961 1348.724 1345.045 1342.871 1342.515 1339.033 1329.931 1322.083 1311.629 1301.666 1294.903 1288.198 1282.912 1276.865 1271.123 1265.827 1258.776 1255.585 1268.008 1276.7 1287.113 1294.42 1298.086 1297.075 1292.56 1288.609 1284.253 1282.226 1284.793 
1370.89 1372.732 1379.166 1385.819 1392.154 1402.291 1407.036 1399.668 1394.358 1388.664 1382.302 1383.16 1386.479 1387.693 1386.763 1382.22 1378.23 1371.375 1382.274 1389.655 1392.057 1390.392 1385.102 1375.56 1369.483 1363.253 1360.189 1366.697 1371.259 1376.307 1381.351 1385.479 1385.29 1383.865 1381.257 1377.33 1371.591 1365.127 1359.12 1354.002 1347.108 1354.29 1358.8 1357.859 1357.606 1357.53 1355.091 1351.797 1349.009 1345.162 1336.591 1326.142 1322.251 1309.38 1302.444 1298.004 1290.891 1283.335 1277.017 1270.859 1266.209 1258.198 1259.205 1268.484 1280.282 1290.079 1297.578 1301.104 1300.007 1296.312 1293.186 1286.146 1284.12 1287.708 
1372.785 1372.248 1380.739 1386.721 1391.612 1401.209 1410.177 1403.541 1399.337 1394.056 1389.687 1392.441 1392.25 1394.205 1392.406 1387.287 1381.973 1372.439 1379.828 1386.852 1393.614 1394.183 1387.623 1377.547 1372.021 1366.244 1367.769 1371.339 1376.134 1381.09 1387.481 1391.247 1390.384 1388.307 1385.788 1381.867 1376.063 1369.718 1361.869 1358.036 1362.721 1367.561 1365.833 1364.424 1363.838 1363.287 1359.821 1356.416 1352.769 1347.297 1334.05 1326.409 1320.078 1311.368 1304.242 1297.92 1291.087 1285.468 1278.482 1271.129 1264.361 1258.841 1263.059 1269.737 1282.535 1293.616 1300.777 1303.594 1302.07 1300.102 1295.659 1288.792 1288.032 1291.374 
1376.494 1374.148 1380.877 1384.759 1392.711 1401.073 1411.295 1408.435 1405.872 1399.861 1399.949 1401.09 1398.611 1398.709 1396.073 1391.761 1384.94 1375.215 1376.608 1385.935 1393.246 1398.467 1392.847 1384.403 1379.221 1371.104 1374.284 1377.874 1382.106 1386.747 1390.604 1394.372 1395.406 1392.77 1388.975 1385.515 1380.191 1371.211 1366.774 1368.073 1374.109 1372.977 1370.385 1369.908 1369.187 1367.305 1362.404 1356.086 1348.871 1341.01 1329.901 1324.547 1320.553 1313.311 1306.25 1299.058 1292.46 1287.299 1279.972 1272.753 1264.329 1259.694 1265.225 1273.257 1283.544 1295.555 1301.851 1305.262 1305.278 1302.909 1299.136 1294.736 1294.055 1296.981 
1380.561 1375.514 1384.236 1388.004 1394.625 1401.505 1411.781 1413.583 1411.35 1410.639 1409.436 1409.762 1405.56 1402.944 1399.192 1393.416 1387.621 1379.978 1376.833 1385.556 1393.746 1401.145 1398.62 1391.044 1383.012 1379.172 1379.9 1382.89 1387.45 1391.097 1394.375 1398.102 1400 1397.249 1393.231 1388.574 1382.845 1375.99 1372.218 1377.911 1378.731 1378.373 1377.812 1375.3 1371.78 1368.34 1362.325 1355.352 1348.194 1341.304 1331.218 1327.511 1321.292 1315.406 1309.634 1302.936 1296.986 1291.257 1283.609 1274.879 1265.679 1260.867 1265.585 1274.05 1283.063 1295.133 1302.51 1306.409 1308.046 1307.14 1302.102 1299.917 1299.921 1302.139 
1387.584 1378.428 1385.809 1390.876 1395.72 1406.867 1414.422 1417.326 1418.213 1418.682 1421.494 1417.068 1409.551 1405.255 1399.971 1394.359 1390.365 1385.169 1377.82 1385.183 1396.696 1399.851 1403.958 1397.667 1389.21 1385.094 1387.257 1388.788 1392.665 1395.667 1398.669 1399.398 1398.926 1396.884 1392.951 1390.541 1389.28 1388.029 1383.494 1382.302 1382.443 1381.896 1380.928 1377.028 1372.776 1366.628 1360.42 1354.36 1345.002 1335.147 1329.555 1324.504 1320.02 1315.355 1313.188 1308.134 1301.723 1293.336 1285.246 1276.034 1266.992 1262.028 1265.482 1272.926 1282.11 1291.353 1299.551 1306.644 1311.439 1311.079 1309.834 1305.735 1305.687 1309.762 
1391.838 1382.925 1386.504 1394.647 1399.047 1410.269 1415.147 1420.359 1422.611 1424.299 1423.746 1417.615 1413.342 1410.778 1402.438 1395.158 1392.907 1391.184 1380.627 1387.314 1397.382 1402.115 1409.021 1405.644 1400.637 1394.833 1394.917 1398.743 1400.243 1402.194 1400.914 1396.355 1392.75 1390.761 1387.335 1387.789 1388.19 1388.544 1385.568 1384.154 1384.759 1383.93 1382.344 1378.173 1371.416 1364.61 1357.907 1350.116 1337.173 1330.894 1324.518 1321.271 1315.536 1312.994 1311.058 1308.07 1301.842 1294.131 1285.752 1276.359 1267.354 1263.853 1267.607 1273.19 1281.008 1289.24 1298.413 1304.51 1310.592 1313.444 1313.664 1310.477 1310.925 1313.921 
1393.02 1385.687 1387.251 1397.032 1402.374 1409.011 1416.07 1422.81 1424.552 1425.699 1422.877 1419.793 1416.427 1414.324 1411.252 1401.343 1397.641 1394.714 1385.206 1387.455 1398.23 1405.982 1412.655 1413.059 1410.386 1407.348 1407.228 1406.615 1403.895 1399.314 1396.168 1392.272 1388.512 1385.787 1384.588 1385.272 1383.277 1384.931 1384.8 1383.779 1383.594 1383.019 1379.942 1375.803 1370.458 1362.9 1354.204 1342.57 1333.115 1328.715 1322.916 1317.695 1312.094 1307.665 1307.201 1303.661 1299.362 1293.865 1286.655 1276.254 1268.768 1265.149 1272.113 1276.266 1282.334 1288.315 1294.67 1300.791 1307.797 1314.848 1315.082 1315.061 1320.374 1320.521 
1396.168 1391.644 1388.881 1397.649 1403.024 1408.737 1417.567 1424.787 1427.453 1427.93 1425.03 1422.13 1419.271 1418.146 1415.064 1407.329 1399.662 1396.376 1388.512 1389.004 1397.836 1408.392 1415.779 1417.501 1417.316 1414.375 1411.213 1402.936 1400.823 1396.81 1390.054 1386.283 1381.671 1376.893 1374.662 1374.523 1377.057 1379.131 1380.992 1381.144 1381.596 1380.1 1377.345 1373.889 1366.834 1358.869 1349.168 1338.25 1331.985 1326.805 1319.886 1314.197 1308.198 1304.575 1301.867 1298.568 1294.354 1290.73 1283.993 1277.167 1269.425 1266.214 1272.633 1277.485 1283.693 1289.66 1294.954 1299.84 1305.435 1311.947 1316.317 1318.2 1323.574 1325.478 
